39.8405,74.9206,-1102.77
43.8962,70.3634,-1095
40.4366,67.1902,-1097.16
41.6728,62.3746,-1091.11
40.6723,62.3169,-1092.89
42.5024,56.09,-1085.51
50.3609,54.9461,-1078.19
37.9456,54.2379,-1088.98
41.7156,51.3049,-1082.38
37.6542,51.2524,-1086.42
49.979,49.776,-1072.25
39.4584,49.4251,-1083.74
39.8346,38.1859,-1074.64
39.8346,38.1859,-1074.64
37.8928,37.5842,-1075.83
48.9716,13.3456,-1045.65
44.4523,12.6004,-1052.13
47.2862,10.54,-1045.94
10.3677,10.2253,-1081.53
25.083,8.86103,-1067.66
25.083,8.86103,-1067.66
10.6209,7.60079,-1079.78
26.8028,6.16998,-1063.54
47.4424,5.34124,-1041.85
10.0876,3.43955,-1076.1
13.3864,-2.07424,-1069.6
7.75058,-3.12,-1074
33.7535,-4.38289,-1049.32
6.06903,-5.04748,-1072.14
1.05133,-6.03297,-1071.89
5.0593,-6.8365,-1072.1
33.7403,-7.03899,-1047.01
40.45,-9.03714,-1037.94
8.52368,-17.5948,-1062.3
29.4769,-19.153,-1041.93
2.45744,-29.9395,-1056.68
17.7871,90.8639,-1128.41
37.742,72.7266,-1102.6
37.742,72.7266,-1102.6
41.8231,69.4384,-1096.43
41.8231,69.4384,-1096.43
42.8786,69.004,-1095.39
40.7172,68.8355,-1096.4
42.6388,62.8427,-1090.47
42.0747,58.4781,-1087.78
40.1933,51.9151,-1084.83
50.393,50.6704,-1073.15
50.393,50.6704,-1073.15
49.8892,48.5642,-1072.64
49.8892,48.5642,-1072.64
41.2204,48.2919,-1080.86
37.5855,47.9861,-1084.32
40.1318,47.7255,-1082.46
38.6237,47.5352,-1083.6
49.6191,46.6215,-1071.46
49.6191,46.6215,-1071.46
39.939,45.8447,-1080.53
38.2456,45.674,-1081.83
40.7553,44.9729,-1078.76
40.7553,44.9729,-1078.76
37.1932,44.715,-1082.24
49.1282,42.9607,-1069.07
36.8916,43.0786,-1081.7
39.4448,42.4967,-1078.2
40.1704,41.3392,-1076.58
40.1704,41.3392,-1076.58
36.6995,41.0273,-1079.64
47.3912,36.9089,-1067.71
48.1108,35.7615,-1064.49
48.1108,35.7615,-1064.49
36.5164,28.1676,-1070.49
44.5667,25.4542,-1060.86
47.3884,19.7622,-1052.93
48.7497,14.3806,-1047.78
27.9003,13.9602,-1069.24
49.6439,12.4342,-1044.52
54.4074,10.334,-1036.86
26.9062,9.83127,-1067.3
9.48435,9.54392,-1081.03
12.9539,7.33899,-1078.22
12.9539,7.33899,-1078.22
25.098,7.02873,-1066.26
29.8907,6.80735,-1062.14
8.42467,2.07448,-1077.43
11.4381,1.90323,-1075.68
13.9642,-0.377869,-1069.67
9.28685,-5.37263,-1071.3
7.01736,-5.5248,-1071.76
11.9484,-6.05775,-1067.57
11.9484,-6.05775,-1067.57
42.4327,-6.13078,-1038.94
39.5667,-10.9188,-1037.74
21.3351,-11.5165,-1055.65
13.1131,-15.5911,-1060.59
13.1131,-15.5911,-1060.59
16.5107,-15.9134,-1056.73
16.5107,-15.9134,-1056.73
28.6496,-15.8687,-1045.22
30.3605,-16.5364,-1042.77
15.1506,-17.224,-1057.58
15.1506,-17.224,-1057.58
12.9117,-17.8847,-1058.69
16.1001,-17.7853,-1056.17
49.2943,-19.6165,-1019.1
49.2943,-19.6165,-1019.1
23.0879,-29.2522,-1039.32
7.04467,-33.1174,-1053.64
28.7948,104.978,-1138.35
25.3727,104.679,-1138.45
10.9813,92.6069,-1135.7
9.65636,91.9999,-1135.2
12.5104,91.5462,-1136.82
41.6399,67.9315,-1095.32
43.3389,67.0638,-1093.63
43.1272,65.5038,-1092.31
37.2504,55.497,-1091.05
36.9652,53.5542,-1089.75
48.625,51.2488,-1075.35
40.6814,50.1602,-1082.7
48.6778,48.7693,-1074.02
39.0215,37.0295,-1074.82
49.2293,20.9355,-1051.88
49.2293,20.9355,-1051.88
46.8071,17.5329,-1051.99
29.813,10.4672,-1065.14
9.3429,8.30333,-1080.09
33.531,8.10176,-1059.11
25.6332,5.89482,-1065.34
25.6332,5.89482,-1065.34
9.47978,0.98088,-1076.59
32.485,-0.0566214,-1054.39
15.0282,-1.0492,-1068.97
32.8683,-1.33326,-1052.75
32.8683,-1.33326,-1052.75
12.1724,-1.83768,-1072.92
41.7598,-2.52517,-1041.8
-14.0685,-3.123,-1059.53
29.7958,-3.25692,-1053.69
13.4479,-4.49415,-1068.55
14.1755,-5.75189,-1067.86
43.4496,-5.39899,-1037.85
35.9066,-5.78691,-1047.06
35.9066,-5.78691,-1047.06
29.6018,-6.77756,-1050.76
29.6018,-6.77756,-1050.76
30.6979,-7.62884,-1049.55
41.1865,-7.48503,-1038.77
41.1865,-7.48503,-1038.77
33.363,-8.2392,-1047.46
29.6177,-10.111,-1049.11
29.6177,-10.111,-1049.11
19.1459,-15.7429,-1054.94
20.8388,-17.192,-1051.69
31.062,-17.5883,-1043.2
31.062,-17.5883,-1043.2
7.82908,-18.6546,-1062.8
25.0687,-28.0253,-1039.09
25.0687,-28.0253,-1039.09
16.8893,-29.9879,-1046.02
13.0817,-30.5768,-1048.98
5.56536,-31.7316,-1054.71
16.149,-32.4732,-1045.1
7.33361,-34.1933,-1047.51
4.6479,-34.6897,-1054.23
34.4241,-34.8259,-936.685
25.2601,111.251,-1088.89
12.671,91.578,-1138.35
41.6714,64.6683,-1092.95
40.7946,57.3106,-1087.88
35.8369,29.4822,-1073.17
51.5609,14.3647,-1043.04
29.9173,0.491569,-1055.53
2.69257,-3.4915,-1073.44
15.2449,-4.58753,-1067.39
15.2449,-4.58753,-1067.39
30.2618,-4.86858,-1052.23
45.0189,-4.60246,-1037.12
45.0189,-4.60246,-1037.12
12.4906,-7.63917,-1066.41
24.3677,-12.0068,-1053.25
24.3677,-12.0068,-1053.25
38.206,-11.855,-1038.99
15.1862,-12.4768,-1060.85
22.6498,-13.4188,-1053.36
-15.7947,-13.9773,-1050.63
14.0971,-14.0684,-1060.81
14.0971,-14.0684,-1060.81
17.8563,-17.3195,-1054.6
22.5442,-17.4754,-1051.22
30.7057,-19.2066,-1041.07
-0.886987,-24.2324,-1060.69
15.7032,-29.1236,-1047.74
35.0393,-36.8287,-940.637
23.5715,109.265,-1100.94
37.0297,36.0084,-1077.44
27.1669,14.2036,-1071.12
42.7811,12.2687,-1052.58
-7.98932,10.4607,-1074.98
30.5057,5.03562,-1057.33
32.3399,-5.31199,-1050.41
-18.6167,-6.69031,-1051.74
19.8594,-19.536,-1051.78
19.8594,-19.536,-1051.78
0.624326,-30.3433,-1057.06
0.624326,-30.3433,-1057.06
0.624326,-30.3433,-1057.06
34.4466,109.188,-1097.41
49.0789,53.697,-1077.72
56.6453,10.2131,-1040.15
32.6886,6.8419,-1058.1
12.028,4.08325,-1077.12
8.64778,-0.414231,-1075.25
24.9592,-14.4467,-1051.72
30.2846,-14.8465,-1044.27
24.2919,-19.3342,-1045.86
28.3853,-22.4229,-1041.59
28.153,109.357,-1098.75
48.0425,18.6546,-1052.05
12.0176,0.236542,-1073.54
10.993,-3.18713,-1069.61
-20.0931,-3.87237,-1051.04
-20.0931,-3.87237,-1051.04
32.2817,-10.5084,-1047.58
40.8468,-13.6171,-1034.82
15.1799,-15.5688,-1058.48
15.1799,-15.5688,-1058.48
10.8973,-17.2754,-1060.86
-6.47374,-32.434,-1057.96
0.890149,-34.0115,-1055.18
-20.6785,114.389,-1107.24
16.4588,111.06,-1096.57
40.4557,53.5838,-1085.34
44.7907,51.8467,-1081.15
38.4433,40.1394,-1077.49
37.3436,32.1503,-1072.86
55.1401,7.02304,-1030.57
14.6444,-21.1585,-1055.71
-7.27016,-21.5961,-1051.08
19.2769,-30.2993,-1043.52
68.1515,103.935,-1082.42
44.4939,50.6789,-1079.03
10.0409,-32.1646,-1050.93
-6.50321,-1.36195,-1065.17
55.2701,20.3582,-1042.04
5.13271,3.19335,-1078.04
5.09448,-12.5736,-1066.89
-28.7783,-16.8464,-1028.19
3.66779,99.0551,-1138.2
6.60622,-26.6146,-1055.13
29.9651,68.975,-1095.22
